ncols        261
nrows        53
xllcorner    30.541600000000
yllcorner    -15.955700000000
dx           0.008322988506
dy           0.008300000000
NODATA_value -32768
 468 453 462 421 386 397 454 501 479 497 530 510 466 512 526 531 597 541 517 491 470 502 470 470 462 430 398 391 401 410 428 450 468 468 449 448 465 480 560 588 519 497 484 477 476 521 507 506 496 477 479 488 496 503 509 518 516 504 497 487 480 473 471 468 468 459 453 449 454 449 451 439 448 451 451 475 501 503 504 504 492 517 537 546 562 591 574 558 554 559 555 484 578 657 728 777 776 675 699 858 842 844 812 743 668 627 625 652 660 705 760 761 708 710 654 627 786 796 814 631 664 645 680 611 492 425 507 725 561 597 536 538 542 543 521 542 559 555 553 544 529 500 478 465 467 457 462 479 501 486 464 461 461 446 432 421 405 398 418 526 486 483 473 500 507 494 482 481 481 463 457 466 465 443 429 415 417 412 416 439 446 420 406 407 407 392 371 366 354 345 344 326 331 351 355 384 442 460 412 426 367 349 331 379 400 437 484 453 342 358 370 456 440 423 393 326 338 360 354 371 399 390 542 540 524 347 318 351 380 370 357 380 351 350 404 397 367 404 379 409 328 368 348 344 486 541 531 516 541 606 470 621 562 434 383 388 360 393 424 428 476
 542 541 488 404 381 387 425 428 424 438 463 449 439 452 451 504 555 433 412 409 411 418 419 428 405 391 376 361 382 395 407 422 425 435 433 431 433 435 430 444 461 440 442 451 451 462 475 477 474 478 484 496 507 516 520 523 525 513 504 493 483 474 462 454 448 446 441 439 445 427 426 448 451 446 439 446 460 477 478 502 491 552 545 560 581 576 574 585 565 551 643 483 491 586 687 727 692 614 729 744 734 825 818 813 692 631 623 642 701 716 773 765 749 703 626 649 610 650 746 713 668 617 555 525 474 436 432 561 539 491 486 494 502 503 508 537 545 559 559 530 516 502 496 518 453 447 470 482 484 468 455 441 443 465 438 421 404 383 395 429 415 438 449 497 520 502 481 465 462 470 444 450 456 452 435 421 400 395 402 428 423 411 396 390 393 379 367 350 345 334 337 323 323 340 341 352 384 383 395 387 380 356 354 334 360 402 439 401 373 393 397 392 380 366 336 317 372 343 349 380 397 383 388 457 486 326 371 462 416 403 365 355 353 354 400 497 466 368 351 408 324 384 332 347 516 556 447 461 579 654 609 649 620 470 434 422 369 382 425 388 434
 478 556 482 386 380 375 407 400 400 401 403 403 405 406 407 407 408 385 388 393 394 393 391 388 394 378 360 346 373 387 400 411 415 418 419 415 412 415 417 412 417 416 426 432 473 508 535 506 491 498 509 522 533 539 539 541 537 531 516 503 491 483 472 463 450 443 437 426 417 420 437 447 447 455 434 431 432 435 442 449 470 523 511 516 545 569 612 784 692 546 581 495 444 498 559 705 654 581 699 674 683 725 656 642 695 640 588 589 647 658 712 727 655 635 610 648 626 583 620 640 612 581 579 588 476 446 404 434 507 517 466 465 474 486 504 520 530 558 562 554 536 530 513 487 471 441 450 471 484 496 475 447 428 459 429 417 403 382 392 396 402 442 476 480 494 489 484 466 450 449 440 433 439 437 439 426 442 399 404 431 425 416 415 424 403 394 367 349 334 330 330 323 317 319 328 332 342 356 345 345 339 329 336 335 326 337 342 346 386 346 332 322 319 320 318 331 345 361 385 413 430 427 378 377 420 334 320 359 446 397 380 360 364 451 551 642 554 369 352 452 362 330 349 484 449 453 452 460 577 653 779 637 446 498 490 352 327 351 378 386 402
 555 660 462 379 375 370 390 387 387 386 392 387 388 388 381 377 370 368 376 380 380 382 378 383 390 377 353 364 384 391 402 400 400 406 417 402 399 406 407 407 402 418 433 440 461 541 572 551 524 550 533 535 550 562 564 570 569 557 533 512 505 493 482 472 460 451 441 429 417 404 415 419 434 429 427 424 420 420 425 431 450 473 482 508 545 565 657 872 649 522 572 608 452 484 522 574 531 647 662 654 665 792 764 664 584 538 518 528 559 596 721 806 725 626 551 577 616 566 546 580 587 549 573 576 535 471 411 401 430 449 458 461 474 492 501 513 525 543 551 536 524 528 508 491 464 434 434 451 465 493 492 453 437 419 414 403 407 401 386 368 385 419 472 469 465 461 472 479 453 443 431 422 431 425 423 438 450 429 394 422 442 435 447 478 463 449 424 393 382 334 320 317 317 317 319 319 318 317 319 317 318 317 317 317 317 317 319 318 318 318 317 317 317 317 328 345 368 404 385 418 414 367 435 388 352 334 317 334 326 347 333 334 363 554 722 736 524 464 329 363 325 317 368 627 576 433 439 524 511 499 559 534 356 440 386 325 330 411 474 512 600
 447 544 415 376 370 366 375 380 379 375 376 375 375 374 369 363 359 361 364 369 367 369 369 379 374 366 343 371 378 379 384 385 397 505 566 399 393 393 393 394 407 433 448 461 471 530 574 604 558 555 573 563 571 582 585 595 587 577 557 534 521 502 489 479 466 457 446 436 424 409 396 400 421 413 406 417 423 411 412 420 425 443 452 497 583 575 556 551 508 485 514 505 422 468 456 476 502 625 670 649 657 811 853 790 686 619 533 477 526 631 795 1055 944 663 534 532 551 548 503 508 505 530 519 492 494 430 401 384 404 420 446 481 501 511 538 537 539 542 540 512 502 495 482 477 470 436 422 435 449 469 488 460 442 422 399 397 396 398 399 390 359 390 449 449 426 432 443 474 467 451 484 415 414 416 410 409 422 413 386 398 417 426 442 465 460 419 404 393 392 357 329 318 317 317 317 317 317 317 317 317 317 317 317 317 317 317 317 317 317 317 317 317 317 317 317 317 319 341 335 353 351 319 359 441 441 388 351 327 336 317 333 380 420 522 698 665 543 505 326 317 324 317 382 493 527 400 445 514 512 432 348 321 324 336 353 339 345 390 524 489 566
 402 447 419 375 369 363 363 371 372 367 372 364 366 362 358 353 352 352 353 358 357 360 366 365 356 342 337 358 366 373 375 381 400 466 407 378 406 394 396 412 439 448 469 493 520 524 552 587 593 583 564 581 590 603 605 610 605 592 587 562 537 519 496 482 473 463 451 438 434 417 402 395 411 409 398 396 399 402 406 406 408 415 424 442 493 551 558 556 584 529 433 413 413 469 430 443 462 562 643 669 637 658 727 712 770 778 577 454 583 855 955 950 852 666 530 529 480 492 505 479 490 579 545 470 445 423 398 383 382 408 419 487 470 514 520 540 560 544 519 500 483 467 465 454 449 448 418 426 469 476 461 462 431 408 390 386 382 378 396 399 363 358 388 403 435 463 461 470 469 455 434 413 398 392 398 395 404 398 379 354 379 396 399 420 434 405 392 377 362 334 318 317 317 317 317 317 317 317 317 317 317 317 317 317 317 317 317 317 317 317 317 317 317 317 317 317 317 317 317 317 317 317 319 340 345 344 341 324 323 317 331 365 348 412 424 498 510 435 317 317 317 317 446 389 334 331 398 338 330 334 351 465 549 376 504 456 468 487 563 626 635
 411 394 390 390 362 358 355 357 356 361 359 356 356 351 346 344 344 344 344 347 347 352 360 349 345 335 338 355 371 369 370 380 377 370 365 367 387 396 416 445 458 475 504 541 583 608 589 608 630 622 613 595 608 625 630 629 624 610 604 569 551 530 504 485 472 459 446 434 424 413 400 386 393 403 394 388 391 393 396 394 393 401 408 409 409 416 517 599 715 579 434 399 408 442 415 409 424 466 597 704 552 535 556 605 633 674 584 464 645 773 679 650 609 542 481 514 486 458 493 508 467 494 472 463 429 450 402 383 386 402 415 449 465 479 496 515 529 515 529 536 499 468 456 449 431 436 415 405 431 449 451 475 458 421 417 411 375 357 366 371 360 346 408 453 484 516 523 477 480 441 415 416 398 383 379 376 379 374 374 368 346 361 368 380 403 392 372 356 342 317 317 317 317 317 317 317 317 317 317 317 317 317 317 317 317 317 317 317 317 317 317 317 317 317 317 317 317 317 317 317 317 317 317 319 321 320 323 317 319 317 319 319 318 321 351 371 360 333 317 317 317 317 329 333 326 349 341 322 433 427 379 529 600 552 373 522 620 666 719 655 687
 399 390 380 380 363 352 350 349 353 354 358 349 344 341 336 335 334 334 334 339 341 345 347 340 335 334 348 361 369 365 360 381 370 357 354 369 410 466 454 480 485 472 501 584 606 632 595 619 638 679 687 630 624 634 626 624 647 616 595 586 565 542 515 492 477 464 452 441 427 413 401 392 380 387 393 385 384 385 387 387 383 386 388 391 380 378 388 435 559 601 496 436 383 369 369 386 398 408 483 455 423 401 398 391 391 410 419 399 482 460 488 485 483 504 513 465 469 437 466 454 474 447 465 458 421 423 428 422 379 400 425 457 478 495 514 507 482 463 467 540 499 462 442 426 415 408 414 394 406 424 438 438 452 424 416 511 465 358 342 349 352 338 392 477 478 482 500 499 454 430 410 396 383 380 364 359 359 359 359 355 353 333 346 340 347 371 349 333 321 317 317 317 317 317 317 317 317 317 317 317 317 317 317 317 317 317 317 317 317 317 317 317 317 317 317 317 317 317 317 317 317 317 317 319 339 334 347 340 323 330 317 317 317 326 324 324 339 423 398 338 335 368 454 422 412 386 387 335 359 484 474 490 497 622 587 393 813 800 644 634 330
 390 380 374 367 364 362 348 346 347 345 340 338 335 329 326 324 323 323 323 325 330 337 334 330 329 345 360 361 366 361 354 372 369 354 348 367 423 468 491 502 508 506 504 511 572 552 542 566 591 638 662 639 647 636 629 608 606 594 587 588 587 555 527 508 495 476 459 439 425 415 402 392 377 378 382 381 376 377 376 382 375 377 383 379 370 366 367 391 420 490 568 490 463 402 482 400 378 377 389 378 378 375 366 365 361 373 377 377 429 408 405 422 437 434 443 441 418 401 396 392 394 389 382 373 372 368 428 429 384 408 430 461 509 545 540 517 479 453 444 476 454 455 436 424 419 394 402 397 389 411 413 416 417 413 408 472 508 385 338 327 333 336 365 383 405 431 472 454 441 427 417 398 393 370 351 343 343 338 337 337 332 322 321 319 317 330 327 319 317 317 317 317 317 317 317 317 317 317 317 317 317 317 317 317 317 317 317 317 317 317 317 317 317 317 317 317 317 317 317 317 317 317 317 317 319 318 332 329 324 331 317 317 319 338 379 394 417 431 432 359 353 355 394 380 395 369 342 336 369 449 462 472 463 575 617 448 387 386 358 354 539
 398 386 372 363 360 360 346 341 338 334 331 324 318 317 317 317 317 317 317 317 319 324 319 324 343 350 354 354 360 357 349 361 368 350 346 361 402 432 480 497 527 480 487 489 475 510 505 544 591 610 613 629 655 606 602 607 585 572 565 562 565 551 538 522 502 483 473 451 432 414 405 394 384 373 375 382 372 372 370 375 368 370 373 369 369 357 354 361 367 413 445 368 353 342 369 371 364 359 354 354 358 356 352 347 350 357 362 364 374 384 368 376 409 407 416 416 381 371 352 357 362 359 358 352 352 350 370 468 383 391 447 508 537 585 550 584 527 437 422 441 438 450 437 442 450 406 392 386 378 399 391 400 390 397 387 401 376 389 349 318 318 329 355 364 378 401 420 464 433 414 404 393 385 382 356 340 330 322 319 321 318 317 317 317 317 317 317 317 317 317 317 317 317 317 317 317 317 317 317 317 317 317 317 317 317 317 317 317 317 317 317 317 317 317 317 317 317 317 317 317 317 317 317 325 335 323 330 341 380 350 323 327 343 335 356 384 367 433 413 441 478 342 374 412 380 384 371 458 450 499 505 511 465 577 694 635 331 390 460 640 654
 390 392 381 355 351 348 340 334 331 330 326 322 319 317 319 318 317 317 318 317 317 318 317 325 338 346 346 350 352 356 348 337 336 342 347 353 361 375 404 447 499 469 470 479 465 472 479 551 581 623 574 560 562 563 582 587 584 569 547 539 544 554 545 528 508 489 474 455 441 427 414 401 389 380 376 367 367 365 366 365 362 365 370 373 397 367 352 351 372 377 367 356 344 325 325 340 345 343 339 332 340 340 336 337 347 349 349 360 356 357 351 355 359 362 376 374 360 350 342 343 350 350 344 340 337 336 341 392 408 393 457 535 565 527 527 550 510 439 408 408 421 440 449 425 410 403 387 361 362 386 377 386 379 369 368 373 372 354 350 330 317 317 319 329 344 375 396 480 470 409 394 379 367 384 406 387 342 319 321 330 324 324 317 317 317 317 317 317 317 317 317 317 317 317 317 317 317 317 317 317 317 317 317 317 317 317 317 317 317 317 317 317 317 317 317 317 317 317 317 317 317 317 317 338 360 362 355 357 369 368 371 332 354 351 347 366 383 391 386 374 384 334 415 496 390 396 431 497 535 561 565 598 508 528 517 533 332 339 445 758 810
 369 375 365 348 342 335 327 324 323 324 322 320 321 321 318 317 317 317 317 317 317 318 317 317 324 333 339 340 351 360 343 331 331 338 339 339 345 351 361 374 393 429 437 439 442 442 455 501 534 515 515 527 531 549 570 571 573 559 545 522 526 542 545 532 511 495 479 461 449 441 423 403 388 379 371 364 360 359 360 357 365 366 375 382 398 372 356 354 360 377 364 350 341 322 320 336 335 329 327 327 323 324 322 328 338 341 334 349 350 345 340 342 345 346 359 357 349 337 331 335 338 336 331 323 323 323 326 347 374 383 386 396 415 423 443 500 512 466 402 394 416 473 581 514 528 437 373 348 343 358 360 362 358 344 346 350 365 341 336 345 334 318 317 317 319 335 458 487 511 449 374 367 366 374 399 374 362 336 318 341 360 376 341 321 320 317 317 317 317 317 317 317 317 317 317 317 317 320 317 317 317 317 317 317 317 317 317 317 317 317 317 317 317 317 317 317 317 317 317 317 317 317 317 317 317 339 371 371 365 382 376 362 333 350 336 337 364 381 383 395 363 390 383 417 422 407 447 466 516 517 531 566 583 656 527 382 351 371 356 461 657
 357 363 352 338 328 325 324 324 323 323 322 322 323 323 322 318 320 317 317 317 317 317 317 317 317 318 328 326 341 336 337 323 327 332 324 323 331 333 342 351 356 366 379 391 395 413 443 465 490 500 493 505 514 535 570 556 561 569 537 512 513 530 533 531 525 511 491 476 464 453 430 411 394 379 367 361 353 354 353 355 366 371 364 360 367 374 357 346 343 364 360 340 332 317 317 327 324 321 323 323 317 317 317 319 328 337 321 337 340 337 330 334 334 330 349 347 335 324 319 321 321 322 320 317 317 318 320 330 346 374 347 343 344 358 360 365 430 452 401 385 394 474 488 458 557 472 362 341 329 334 338 347 352 330 327 352 332 318 317 317 319 320 319 317 317 317 394 486 577 469 360 343 357 338 349 359 342 330 318 323 337 362 353 344 366 375 329 317 317 317 317 317 317 317 317 317 317 317 317 317 317 317 317 317 317 317 317 317 317 317 317 317 317 317 317 317 317 317 317 317 317 317 317 317 317 317 324 326 347 356 369 364 347 334 325 327 335 350 360 372 380 388 410 401 455 443 450 521 469 463 513 629 611 583 619 629 458 413 320 324 385
 345 343 332 325 324 324 323 324 324 323 322 322 321 320 318 321 323 324 325 317 317 317 317 317 317 317 317 318 322 319 319 318 318 322 318 317 317 323 330 331 341 349 359 371 374 400 455 445 474 522 486 482 522 553 551 542 555 530 527 507 498 520 520 519 519 506 498 486 477 454 434 416 400 380 364 357 347 349 346 354 360 365 361 357 352 349 358 344 341 337 350 354 340 319 317 320 319 317 318 317 317 317 317 318 322 322 317 321 326 326 323 329 324 319 325 331 322 317 317 317 317 317 317 317 317 318 323 332 328 330 320 336 332 335 339 334 340 332 339 362 408 477 419 363 367 365 334 324 317 320 318 320 322 324 317 336 319 317 317 317 317 317 317 317 317 317 319 346 446 474 388 328 357 342 321 327 320 317 317 317 319 325 323 324 340 353 348 317 317 317 317 317 317 317 317 331 329 317 317 317 317 317 317 317 317 317 317 317 317 317 317 317 317 317 317 317 317 317 317 317 317 317 317 317 317 317 317 317 318 336 365 375 382 348 318 325 337 344 353 360 371 400 408 403 418 419 431 465 493 489 501 515 500 478 631 748 631 442 329 390 354
 328 327 326 325 326 324 324 324 323 322 322 322 322 322 323 323 327 335 328 324 324 320 317 317 317 317 317 317 317 317 317 317 317 317 317 317 319 320 320 322 330 337 348 353 357 414 488 477 464 483 470 455 479 518 531 540 541 517 506 490 489 512 501 497 499 491 478 471 472 456 433 417 409 392 360 350 340 345 342 346 353 354 354 353 345 345 338 340 351 334 325 332 346 341 318 316 317 317 317 317 317 317 317 317 319 317 317 317 319 317 317 317 317 317 317 318 317 317 317 317 317 317 317 317 317 317 320 323 319 317 318 329 335 324 322 319 317 317 321 323 322 317 317 317 317 317 317 317 317 317 317 317 317 317 317 317 317 317 317 317 317 317 317 317 317 317 317 317 317 320 323 319 333 344 320 317 317 317 317 317 317 317 317 317 317 317 323 317 317 591 523 317 317 317 317 393 440 398 333 345 322 317 317 317 317 317 317 317 317 317 317 317 317 317 317 317 317 317 317 317 317 317 317 317 317 317 317 318 320 326 349 362 373 364 327 324 332 344 357 365 376 389 393 398 410 452 470 510 562 554 558 509 466 425 423 472 506 479 383 365 378
 325 325 326 325 324 323 324 328 331 331 326 326 325 324 324 326 337 346 340 334 334 325 319 317 317 317 317 318 317 318 317 317 317 317 317 317 317 318 317 317 320 329 331 334 341 425 454 488 432 419 423 424 467 493 494 538 527 507 483 482 461 489 478 476 487 469 456 452 446 432 420 405 392 382 356 344 337 338 337 336 340 343 346 343 340 338 333 328 351 344 331 324 325 329 323 317 318 317 317 317 317 317 317 317 317 317 317 317 317 317 317 317 317 317 317 317 317 317 317 317 317 317 317 317 317 317 318 322 317 322 319 334 333 326 319 317 317 317 317 317 317 317 317 317 317 317 317 317 317 317 317 317 317 317 317 317 317 317 317 317 317 317 317 317 317 317 317 317 317 317 317 317 317 317 317 317 317 317 317 317 317 317 317 317 317 317 317 317 317 317 317 317 317 318 330 373 403 404 375 420 384 327 317 317 317 317 317 317 317 317 317 317 317 317 317 317 317 317 317 317 317 317 317 316 317 318 323 327 332 334 337 343 346 338 329 327 329 344 351 359 396 408 433 423 437 577 612 609 687 775 792 688 615 432 406 397 403 412 448 461 419
 325 324 324 325 326 332 339 344 354 355 337 331 329 327 325 324 327 333 337 344 334 340 332 323 326 319 317 322 335 329 317 317 317 317 317 317 317 316 317 317 317 318 318 320 321 368 382 412 370 355 368 383 420 464 457 463 477 487 455 458 440 460 453 441 464 477 445 447 422 410 403 392 378 366 355 351 337 333 330 332 331 331 335 337 331 327 329 322 325 352 345 325 319 317 317 317 321 317 317 317 317 317 317 317 317 317 317 317 317 318 318 317 317 317 317 317 317 317 317 317 317 317 317 317 317 317 318 318 317 323 326 331 326 322 317 317 317 317 317 317 317 317 317 317 317 317 317 317 317 317 317 317 317 317 317 317 317 317 317 317 317 317 317 317 317 317 317 317 317 317 317 317 317 317 317 317 317 317 317 317 317 317 317 317 317 317 317 317 317 317 317 317 344 359 395 402 401 383 328 319 322 324 318 317 317 317 317 317 317 317 317 317 317 317 317 317 317 317 317 317 317 317 318 320 322 329 335 337 341 341 343 345 342 335 337 334 332 333 344 349 376 412 445 436 477 491 538 551 545 659 746 616 505 431 412 404 415 443 491 639 651
 335 333 335 342 344 347 348 341 354 357 341 336 334 331 326 325 325 325 333 337 339 337 329 325 320 317 317 326 333 344 352 331 319 317 317 317 317 316 317 317 317 317 317 317 317 317 322 319 326 328 330 331 343 383 398 411 418 423 412 407 404 406 409 407 418 428 415 403 398 391 381 369 364 356 348 353 355 332 335 322 323 324 331 329 322 319 319 319 317 323 342 329 323 320 317 317 317 317 317 317 317 317 317 317 317 317 317 317 317 317 318 318 317 317 317 317 317 317 317 317 317 317 317 317 318 317 317 317 317 320 323 321 317 318 317 317 317 317 317 317 317 317 317 317 317 317 317 317 317 317 317 317 317 317 317 317 317 317 317 317 317 317 317 317 317 317 317 317 317 317 317 317 317 317 317 317 317 317 317 317 317 317 317 317 317 317 317 317 317 317 317 317 324 335 331 335 344 355 323 317 317 317 317 317 317 317 317 317 317 317 317 317 317 317 317 317 317 317 317 317 317 317 324 328 358 356 347 351 350 350 350 352 348 344 339 336 342 340 343 359 402 420 423 484 541 442 461 469 546 506 550 492 452 427 415 417 434 537 679 832 802
 349 348 352 353 356 360 355 346 346 343 341 339 337 331 326 326 326 330 336 342 338 334 329 326 323 321 320 328 336 353 368 381 384 336 321 319 317 317 317 317 317 317 317 323 317 317 317 317 317 317 316 317 319 337 351 354 356 367 373 377 380 375 379 381 379 379 387 385 378 376 368 359 353 345 339 343 349 330 333 336 319 322 335 326 318 317 317 317 317 317 323 326 322 317 318 318 317 317 319 321 317 317 317 317 317 317 317 317 317 317 318 317 317 317 317 319 317 317 317 317 317 317 317 317 317 317 317 317 317 317 317 317 317 317 317 317 317 317 317 317 317 317 317 317 317 317 317 317 317 317 317 317 317 317 317 317 317 317 317 317 317 317 317 317 317 317 317 317 317 317 317 317 317 317 317 317 317 317 317 317 317 317 317 317 317 317 317 317 317 317 317 317 317 317 317 317 317 317 317 317 317 317 317 317 317 317 317 317 317 317 317 317 317 317 317 317 317 317 317 317 317 317 327 336 366 404 365 363 359 357 357 357 353 348 345 342 346 345 340 362 398 412 445 445 437 418 429 454 538 551 469 469 444 429 454 452 538 829 900 926 930
 357 355 361 362 368 363 355 350 348 344 341 341 337 328 327 327 327 333 338 340 335 335 335 332 328 326 326 330 337 344 356 371 377 373 335 319 331 323 317 317 317 316 317 329 321 317 317 317 317 317 317 317 317 319 324 328 327 337 345 356 357 356 359 359 357 361 367 368 363 359 356 351 345 339 331 327 323 331 327 340 324 319 354 352 322 317 317 317 317 317 317 317 317 343 341 324 317 317 317 324 324 317 317 317 317 317 317 317 317 317 317 317 317 317 317 317 320 317 320 318 317 317 317 317 317 317 317 317 317 317 317 317 317 317 317 317 317 317 317 317 317 317 317 317 317 317 317 317 317 317 317 317 317 317 317 317 317 317 317 317 317 317 317 317 317 317 317 317 317 317 317 317 317 317 317 317 317 317 317 317 317 317 317 317 317 317 317 317 317 317 317 317 317 317 317 317 317 317 318 317 317 317 317 317 322 327 325 318 317 317 317 317 317 317 317 317 317 317 317 316 317 325 346 347 348 376 383 374 368 366 364 360 357 354 352 350 348 346 346 366 402 434 460 413 399 404 411 413 418 440 437 468 480 479 537 581 595 797 919 930 937
 365 364 367 371 367 359 356 355 351 348 341 338 332 328 327 328 333 335 335 337 338 338 338 336 335 333 333 338 340 349 358 358 353 341 331 342 359 339 324 319 318 317 325 343 353 326 320 319 323 329 317 317 317 317 317 317 317 317 322 333 335 338 344 342 344 346 350 351 349 346 340 338 335 329 323 319 317 317 317 329 339 318 317 342 346 337 330 317 317 317 317 317 317 338 365 326 317 317 317 317 324 324 317 317 317 317 317 317 317 317 317 317 317 317 317 317 320 318 325 331 321 317 319 319 317 317 317 317 317 317 317 317 317 317 317 317 317 317 317 317 317 317 317 317 317 317 317 317 317 317 317 317 317 317 317 317 317 317 317 317 317 317 317 317 317 317 317 317 317 317 317 317 317 317 317 317 317 317 317 317 317 317 317 317 317 317 317 317 317 317 317 317 317 317 317 317 317 320 336 326 319 317 317 317 325 317 317 318 317 318 317 317 317 317 317 317 316 317 317 317 319 322 353 357 352 362 378 383 377 376 369 364 361 363 359 357 354 352 350 346 352 361 365 371 380 388 396 398 404 414 418 413 409 414 460 599 752 787 960 952 912
 364 373 377 379 370 367 360 354 348 351 344 335 331 329 329 335 338 337 338 341 342 342 342 338 338 338 336 341 340 343 349 347 343 336 332 336 365 362 346 327 324 328 336 357 350 342 349 387 381 354 317 317 317 317 317 317 317 317 317 317 317 319 328 325 324 328 328 328 329 332 326 325 324 320 317 317 317 317 317 317 324 327 320 317 329 343 324 317 317 317 317 317 318 317 348 347 319 317 317 317 317 328 320 317 317 317 317 318 317 317 317 318 317 317 317 321 330 327 317 317 317 318 335 351 331 321 317 317 317 317 317 317 317 317 317 317 317 317 317 317 317 317 317 317 317 317 317 317 317 317 317 317 317 317 317 317 318 317 317 317 317 317 317 317 317 317 317 317 317 317 317 317 317 317 317 317 317 317 317 317 317 317 317 317 317 317 317 317 317 317 317 317 317 317 317 317 317 325 358 351 352 346 323 318 333 318 317 317 317 318 319 317 317 317 317 319 317 319 321 325 328 330 359 366 359 364 376 387 390 382 374 371 371 369 368 364 360 358 356 352 351 356 370 378 381 382 385 390 397 405 412 403 399 395 393 404 453 521 616 675 793
 357 374 390 392 375 371 370 357 349 343 340 335 330 330 333 340 343 341 341 342 344 346 346 343 343 343 342 345 347 347 344 342 339 335 340 337 346 355 365 362 341 338 339 359 380 406 399 394 379 355 331 317 317 317 317 317 317 317 317 317 317 317 317 317 319 320 320 322 322 322 320 320 318 317 317 317 317 317 317 317 317 317 320 317 317 317 317 317 317 317 317 317 317 325 324 350 337 317 317 317 317 317 321 317 317 321 322 325 326 327 320 325 317 317 317 320 337 336 322 317 317 319 342 368 363 369 325 317 317 317 317 317 317 317 317 317 317 317 317 317 317 317 317 317 317 317 317 317 317 317 317 317 317 317 317 318 323 320 317 317 317 318 317 317 317 317 317 317 317 317 317 317 317 317 317 317 317 317 317 317 317 317 317 317 317 317 317 317 317 317 317 317 317 317 317 317 317 317 317 317 332 375 385 366 337 321 317 317 317 317 321 317 318 317 317 319 318 321 331 337 340 340 360 373 366 368 374 385 393 385 379 377 380 381 377 373 368 363 362 359 355 357 362 370 383 394 395 397 400 407 414 403 393 387 383 381 380 387 398 425 460
 356 363 375 378 371 366 377 366 351 342 335 330 332 332 336 339 345 346 344 345 347 349 350 349 348 348 348 348 353 355 352 349 345 340 340 341 343 353 355 347 330 338 342 365 376 382 367 365 355 346 327 321 320 317 317 317 317 317 317 317 317 317 317 317 317 317 317 317 317 318 317 317 317 317 317 317 317 317 317 317 317 317 317 317 317 317 332 334 324 317 317 317 317 317 330 338 330 318 317 317 318 318 318 318 322 328 335 341 340 341 334 324 326 318 317 322 338 343 330 317 316 317 337 366 381 382 343 317 317 317 317 317 317 317 317 317 317 317 317 317 317 317 317 317 317 317 317 317 317 317 316 317 317 318 318 318 326 320 317 321 319 319 318 317 317 317 317 317 317 317 317 317 317 317 317 317 317 317 317 317 317 317 317 317 317 317 317 317 317 317 317 317 317 317 317 318 333 354 324 317 317 319 331 338 329 317 317 319 321 317 323 329 323 317 317 322 323 330 339 343 353 351 358 374 375 375 377 384 395 391 388 383 389 391 389 382 373 368 368 366 363 362 364 367 372 381 392 404 410 412 412 403 395 389 383 376 371 369 370 375 380
 357 363 368 366 366 364 369 368 353 343 332 333 332 333 340 341 345 349 346 348 353 355 354 355 353 354 350 350 358 359 352 348 344 342 345 345 344 348 344 341 329 349 353 356 374 371 365 353 348 335 337 330 320 317 318 320 317 317 317 317 317 317 317 317 317 317 317 317 317 317 317 317 317 317 317 317 317 317 317 319 317 317 317 317 326 326 320 365 343 326 317 317 317 317 317 328 339 331 324 317 317 323 321 322 325 336 343 348 354 349 340 333 328 326 323 324 339 350 338 325 319 319 333 368 393 402 368 320 317 317 317 317 317 317 317 317 317 317 317 317 317 317 317 317 317 317 317 317 317 316 317 319 320 321 327 322 325 320 321 326 329 327 320 321 318 317 317 317 317 317 317 317 317 317 317 317 317 317 317 317 317 317 317 317 317 317 317 317 317 317 317 317 317 317 317 324 344 364 375 341 320 321 326 334 326 320 319 317 330 325 322 332 331 325 322 324 331 334 344 354 355 366 367 379 381 383 384 387 395 400 395 392 393 401 392 382 377 377 373 373 370 368 368 371 374 379 386 395 408 417 411 402 394 388 382 376 371 366 362 359 360
 363 370 374 366 366 360 356 356 349 341 332 332 333 337 344 346 347 349 350 352 357 361 359 360 357 359 360 354 358 361 355 352 349 347 348 348 346 344 339 337 335 346 354 364 376 369 357 351 349 341 343 331 318 322 327 324 319 317 317 317 317 317 317 317 317 317 317 317 317 317 317 317 317 317 317 317 317 317 317 347 325 317 317 317 327 362 332 333 358 388 338 318 317 317 317 317 325 341 338 327 322 323 329 328 330 337 348 354 356 349 343 342 335 333 333 328 336 348 345 333 325 329 329 363 383 379 382 343 317 317 317 317 317 317 317 317 317 317 317 317 317 317 317 317 317 317 317 319 319 318 320 320 326 324 336 333 330 331 334 334 338 333 334 332 320 318 316 318 319 317 317 317 317 317 317 317 317 317 317 317 317 317 317 317 317 317 317 317 317 317 317 317 317 317 317 317 317 317 327 352 367 326 330 335 339 332 324 322 333 337 333 336 339 335 329 332 338 339 349 358 365 368 374 382 387 389 393 397 398 406 403 400 399 402 391 388 385 383 380 380 374 373 374 379 379 382 385 393 403 415 413 407 398 390 383 378 374 370 364 358 353
 366 363 364 357 359 361 356 349 346 340 332 335 336 343 350 352 351 351 354 359 363 366 366 365 362 364 364 359 359 360 356 356 356 355 352 347 345 342 339 339 338 346 353 357 366 370 367 361 357 351 339 335 321 324 339 342 333 324 319 317 317 317 317 317 317 317 317 317 317 317 317 317 317 317 317 317 317 329 331 328 331 317 317 317 317 343 370 343 346 398 384 331 317 317 320 320 318 326 344 339 330 329 330 335 336 337 348 356 361 356 353 350 340 341 344 337 336 347 345 338 336 337 337 340 348 348 369 355 343 325 361 393 339 323 330 332 332 325 318 317 316 316 316 317 316 317 321 329 332 327 328 327 336 329 338 339 332 339 345 343 346 343 343 336 321 316 317 321 322 318 318 317 317 317 317 317 317 317 317 317 317 317 317 317 317 317 317 316 317 317 317 316 317 318 317 319 323 321 322 331 345 345 335 339 340 342 336 326 334 343 342 344 343 344 332 338 346 349 348 352 365 375 377 388 392 397 401 404 405 410 410 409 408 405 396 397 393 388 387 385 379 378 381 385 384 387 388 393 403 413 419 408 399 391 387 384 380 374 368 363 356
 361 356 353 350 353 354 355 350 348 340 333 337 341 344 351 356 359 360 360 364 369 372 374 372 370 371 373 364 364 365 362 363 362 360 350 351 351 346 345 342 342 342 350 359 357 352 354 356 352 349 340 330 324 327 334 338 330 326 320 317 317 317 317 317 329 342 338 339 342 321 318 317 317 317 317 317 346 335 334 328 317 317 317 317 317 317 318 329 339 364 387 363 321 316 321 328 323 324 333 343 337 335 333 338 341 342 344 350 357 362 354 348 345 347 350 342 341 346 351 346 350 349 349 341 328 318 328 360 381 380 402 421 434 423 375 360 358 336 331 324 320 319 318 319 319 321 327 336 341 339 338 338 339 337 339 344 336 346 351 353 350 350 347 336 323 320 319 329 326 321 318 317 317 317 317 317 316 316 316 316 317 317 316 317 317 317 317 317 317 317 317 317 320 322 327 326 329 329 326 330 338 342 336 334 341 347 340 334 339 346 348 352 353 342 338 347 356 359 360 360 367 377 386 393 397 404 408 412 414 415 418 417 418 408 403 405 398 394 397 389 384 384 388 397 392 394 392 395 403 409 418 407 401 397 394 391 386 379 372 365 359
 365 360 352 349 345 344 341 334 336 333 338 345 346 348 351 358 362 367 368 371 374 381 380 380 380 380 381 377 372 372 369 369 366 356 352 351 352 350 347 348 346 346 345 352 354 347 343 338 336 339 332 326 335 336 334 331 325 320 317 317 317 317 317 317 317 328 376 442 463 432 433 426 419 384 341 349 390 356 329 316 317 317 317 317 317 317 317 319 330 339 359 372 339 317 323 333 329 330 333 337 344 343 336 343 346 347 347 350 357 363 361 355 352 352 353 349 347 349 357 359 356 362 358 345 330 322 318 318 333 373 417 430 441 455 444 435 437 399 385 345 337 334 334 330 337 340 342 342 349 349 346 346 342 341 342 345 342 349 359 362 357 356 344 334 323 325 325 334 328 320 318 317 317 317 316 316 316 320 319 319 318 318 316 317 317 317 317 320 319 317 317 318 323 328 334 338 335 339 335 330 336 341 344 340 342 347 350 344 348 346 349 354 361 350 343 357 369 375 371 367 373 383 393 401 405 409 415 420 421 424 426 427 423 412 415 411 404 401 401 392 388 392 394 403 400 399 399 399 403 408 418 413 408 404 401 395 389 382 374 368 364
 377 365 355 348 346 343 340 334 339 341 344 343 347 349 353 359 368 377 382 382 381 387 394 395 392 391 388 385 382 381 378 376 368 355 355 355 356 354 348 352 348 347 352 356 351 345 340 335 332 330 326 337 340 337 335 330 325 324 322 317 328 319 317 317 317 317 321 347 385 398 418 427 416 380 338 350 352 344 330 317 317 317 317 317 317 317 317 317 323 337 346 346 337 321 325 333 335 336 338 339 341 343 341 346 349 353 351 355 356 364 366 362 360 358 358 354 356 354 362 366 369 372 360 344 336 330 321 317 321 332 353 392 426 449 460 467 427 472 504 460 467 389 376 368 365 395 484 443 374 360 356 354 350 349 350 351 348 351 353 367 366 355 346 337 330 336 338 332 321 319 318 318 318 318 319 319 320 325 326 326 322 323 318 317 318 321 321 326 320 318 318 318 322 333 346 365 353 347 341 333 340 343 347 345 348 352 353 359 354 354 351 358 363 357 349 367 406 402 388 384 385 398 409 410 413 419 419 426 430 436 434 435 426 422 420 416 411 409 405 396 394 397 403 405 408 407 407 405 405 412 422 421 419 413 408 401 394 386 380 374 368
 374 366 357 349 343 341 339 332 340 345 348 346 348 352 358 369 377 385 389 395 393 395 399 406 404 403 400 392 388 389 386 385 374 368 365 360 357 354 350 354 351 352 354 356 353 349 345 340 337 333 326 337 341 342 336 330 331 328 324 320 337 325 317 317 317 317 318 326 332 332 333 346 338 333 326 336 328 326 332 318 317 317 317 317 317 317 317 320 327 336 339 340 334 326 328 335 340 339 342 344 343 345 345 348 351 356 359 358 363 366 368 369 370 365 364 360 364 360 361 371 379 368 356 352 346 335 324 318 321 333 341 354 386 409 430 452 448 445 495 542 551 582 561 561 517 436 398 402 416 383 370 364 359 359 361 359 357 358 358 361 366 363 350 343 338 345 341 334 328 320 321 322 321 327 328 329 331 333 335 335 332 329 322 321 322 324 326 329 326 321 317 319 321 336 407 588 533 397 355 342 339 346 350 351 352 356 359 363 364 365 359 361 366 369 357 375 399 400 398 398 394 400 412 416 417 426 426 431 436 444 443 441 434 431 428 426 420 416 409 401 399 404 411 413 418 416 416 414 409 416 424 431 427 423 416 407 398 392 385 378 372
 360 359 350 344 340 337 339 334 344 351 354 348 349 353 358 364 375 390 397 403 411 415 413 414 415 413 409 402 402 396 393 393 387 382 376 371 360 357 357 360 360 362 363 363 359 356 351 348 343 339 331 339 345 351 345 340 337 335 334 328 329 327 324 323 323 323 323 323 324 324 322 320 318 320 321 326 324 321 323 317 317 317 317 317 317 319 322 324 329 339 343 341 340 335 334 339 343 345 343 348 351 351 351 351 355 358 362 364 364 370 372 376 374 373 369 365 369 366 364 373 381 372 363 355 346 336 328 323 324 332 341 351 364 380 405 433 443 440 458 496 545 559 544 575 568 510 454 401 515 490 387 373 374 372 373 371 366 367 365 362 371 367 351 346 342 345 344 342 342 335 326 333 326 331 334 338 340 338 340 341 338 332 326 331 329 325 333 329 320 318 322 329 324 335 417 641 659 554 413 354 346 347 353 358 360 363 368 373 373 369 363 363 371 377 370 358 372 385 388 397 398 403 411 418 423 430 434 442 443 450 454 448 442 439 440 432 427 423 413 407 404 411 418 427 426 425 425 420 414 421 431 439 438 432 424 414 405 397 390 384 377
 352 348 345 343 342 339 338 332 340 349 358 355 356 363 369 375 380 379 398 420 428 434 422 415 418 412 408 414 419 410 404 401 396 391 384 376 372 372 366 366 366 369 371 369 365 361 356 351 347 337 338 340 346 349 345 344 344 346 346 342 336 333 329 330 331 331 330 327 324 320 318 317 317 316 316 317 317 317 317 317 317 317 317 317 324 332 332 332 337 336 339 344 343 339 338 342 348 353 352 349 352 355 358 358 359 361 364 368 371 374 378 379 382 379 372 373 373 373 369 374 377 369 357 347 341 338 333 329 329 333 340 350 357 366 377 395 410 419 434 447 467 504 523 562 573 558 533 552 542 481 432 411 390 392 394 385 379 377 371 366 375 365 355 353 352 354 353 349 345 339 333 336 336 338 341 343 346 345 347 347 342 340 334 338 334 332 336 333 320 318 318 325 332 329 360 441 531 473 397 369 352 352 359 362 364 369 376 389 385 377 370 372 370 376 375 366 365 373 379 386 400 412 416 421 430 435 440 445 451 458 463 455 452 450 446 439 435 427 421 413 410 419 427 433 439 433 432 429 421 427 438 448 448 442 432 420 411 404 396 388 381
 352 349 347 346 352 350 340 334 337 342 351 351 356 363 369 376 381 384 401 410 417 427 420 418 417 412 418 441 429 422 418 413 406 395 391 387 385 377 372 374 371 375 384 379 373 365 358 351 345 342 346 345 346 349 350 350 348 350 350 347 344 342 336 335 339 339 337 335 326 322 319 317 317 317 317 317 317 317 317 317 317 317 317 317 319 326 333 336 339 343 344 346 344 344 342 342 345 355 361 359 354 358 362 365 366 366 369 373 375 379 383 385 390 382 381 378 379 379 379 376 370 362 355 351 348 344 341 336 334 336 339 345 354 362 370 382 398 406 417 429 443 455 480 502 511 520 542 545 566 527 504 518 452 416 404 401 390 382 379 373 376 370 368 374 382 382 366 358 356 349 340 339 342 341 348 350 351 353 355 353 348 344 340 343 339 337 340 333 325 323 323 323 333 337 341 348 385 424 400 377 360 358 359 367 370 372 377 384 392 386 382 377 376 378 374 375 377 377 386 392 392 406 419 428 438 444 449 451 459 464 468 466 463 459 453 448 441 434 426 416 417 427 439 442 446 448 446 436 427 430 442 453 460 453 439 428 417 410 399 390 381
 355 353 353 350 349 346 342 336 337 347 357 351 354 363 373 383 385 387 399 415 420 430 440 435 426 419 415 426 441 444 440 425 410 400 394 389 382 379 375 376 379 381 396 396 379 372 362 350 344 349 355 355 352 352 353 359 360 361 366 361 349 350 342 340 348 347 346 342 335 326 321 317 317 317 317 317 317 317 317 317 317 317 317 316 317 320 323 330 336 343 346 351 352 350 348 346 348 349 353 360 361 358 364 371 377 374 371 375 379 382 385 389 391 389 387 385 386 387 384 376 369 363 360 357 354 351 347 341 338 339 343 345 351 359 368 376 388 393 402 417 430 442 450 452 455 474 499 513 525 533 533 536 496 466 443 449 435 402 413 426 386 393 405 404 383 391 385 377 384 363 354 343 347 346 349 355 355 360 360 356 353 348 345 347 344 343 341 337 332 329 327 326 329 338 345 349 354 360 380 372 372 371 370 371 374 377 380 383 391 395 393 388 385 385 385 391 388 387 389 397 397 404 413 430 443 458 460 463 470 473 478 475 471 467 461 456 451 440 428 419 424 434 443 454 460 464 455 442 431 434 448 460 476 464 446 432 425 414 405 399 388
 360 356 350 347 344 348 352 339 341 354 358 359 355 355 364 373 372 378 385 396 418 430 435 447 439 426 424 436 450 439 435 422 409 401 395 391 385 382 380 381 379 381 383 381 373 367 364 352 345 354 369 376 361 357 363 370 379 392 393 392 377 359 355 357 360 363 364 362 353 338 325 317 317 317 317 317 317 317 317 318 317 317 317 318 321 322 329 332 334 338 344 350 355 358 361 359 352 353 352 358 363 361 363 368 376 382 378 379 382 385 389 396 395 402 397 395 393 392 389 382 376 370 366 363 362 356 351 346 342 343 347 349 354 358 364 372 380 387 399 408 415 422 430 433 442 456 471 490 487 498 511 539 549 522 483 481 505 484 454 513 435 433 465 458 492 437 399 386 371 361 376 357 362 358 357 359 361 365 364 360 358 353 349 349 347 347 346 341 338 332 330 328 332 336 342 346 353 361 363 380 377 379 379 375 379 384 386 389 390 400 405 403 396 394 403 401 411 412 403 404 404 410 427 427 436 453 457 462 478 481 487 486 482 479 470 468 456 442 430 424 433 441 452 461 470 471 462 452 440 437 451 468 485 467 453 438 430 416 404 396 389
 359 351 348 345 340 344 339 339 349 363 364 367 364 356 355 361 366 373 381 393 407 416 432 449 453 444 444 448 444 435 427 420 411 403 399 395 389 387 380 378 373 372 371 372 369 360 355 348 349 357 366 368 364 368 374 385 415 426 428 427 411 384 373 373 380 389 377 365 355 338 328 318 317 317 317 317 317 317 318 323 320 322 318 317 326 328 330 335 337 338 342 348 351 356 360 360 356 355 354 359 363 365 364 367 372 378 383 386 390 390 390 396 402 404 407 405 403 400 394 386 380 375 372 370 366 361 356 350 345 346 353 354 358 360 364 369 374 380 388 393 401 409 416 422 433 440 447 463 469 477 477 486 507 533 525 506 520 528 497 521 533 446 502 550 593 519 439 465 385 371 359 354 357 363 364 369 368 372 369 366 364 355 352 353 352 352 349 349 341 335 337 337 331 337 343 353 359 363 367 367 370 380 386 384 379 386 393 394 394 401 409 411 404 398 411 421 413 423 418 415 416 408 430 439 441 445 457 462 473 487 494 494 489 484 476 469 458 446 433 428 437 453 459 468 483 486 472 461 447 440 453 468 479 468 454 440 429 416 404 397 396
 354 351 350 345 343 339 338 344 353 367 367 365 364 362 364 362 363 367 377 390 396 399 421 431 442 445 446 442 440 436 430 427 415 404 399 394 389 386 382 375 372 368 366 362 361 356 351 353 352 355 361 365 373 381 386 405 451 441 426 418 404 390 386 387 388 378 366 354 344 336 327 318 317 317 317 317 316 317 318 325 325 327 320 317 322 333 335 336 339 341 342 347 354 360 362 363 360 357 357 360 364 365 365 370 372 375 383 389 396 396 397 400 402 408 409 414 412 405 398 392 386 383 379 376 371 366 361 355 349 351 356 361 363 367 368 372 376 382 384 389 395 401 407 415 421 426 432 443 454 462 461 468 465 461 457 459 476 502 520 481 454 417 434 485 533 526 516 542 478 391 371 366 362 366 372 374 375 376 374 370 363 359 359 358 357 357 355 353 347 340 344 341 336 338 348 354 361 367 374 373 374 379 383 391 386 387 393 399 401 401 406 414 420 408 421 443 428 421 430 422 427 417 424 442 457 461 460 467 474 487 499 505 500 491 482 470 457 445 433 432 438 450 466 475 488 483 474 459 447 446 459 474 488 470 458 442 428 414 407 405 402
 357 355 353 346 342 339 342 350 357 363 372 372 367 367 372 370 367 369 370 377 384 392 403 415 429 444 444 446 447 438 431 424 417 414 406 396 391 386 383 378 374 368 366 361 355 358 358 360 356 360 363 366 372 381 393 415 438 445 429 417 410 393 382 377 373 367 360 349 340 335 327 320 317 317 317 317 317 318 322 328 332 332 327 323 323 332 338 340 341 344 345 348 352 359 365 370 364 361 360 361 364 367 367 369 373 377 382 387 389 399 403 408 409 409 413 417 422 415 408 400 394 391 388 384 377 373 366 359 354 355 359 364 367 374 374 377 381 385 388 392 398 403 405 411 417 421 429 434 439 446 453 459 455 451 447 442 446 443 436 423 406 395 398 417 439 460 479 494 517 509 467 385 376 377 380 381 380 381 376 369 368 365 363 363 362 362 360 358 352 346 345 347 337 342 347 355 363 372 376 386 379 381 387 391 396 394 398 401 406 408 410 419 423 414 448 439 437 432 436 438 434 431 424 438 460 477 474 472 479 485 498 512 501 489 476 465 455 444 440 442 445 449 456 467 474 471 462 454 450 452 468 483 484 472 456 441 431 418 413 412 407
 361 359 353 346 341 343 349 362 373 380 379 375 373 371 376 372 373 372 376 375 378 386 392 398 408 429 441 451 458 452 444 435 430 426 414 402 391 389 387 382 375 368 361 359 360 363 365 364 362 365 367 369 371 377 387 402 419 441 437 421 412 403 389 380 372 366 355 348 342 336 330 320 317 317 317 317 321 324 326 331 335 337 336 333 327 328 336 341 343 345 348 349 350 355 360 372 366 366 362 365 365 368 370 371 375 377 383 390 391 393 403 409 414 418 418 422 430 424 416 408 404 400 396 389 383 376 370 364 359 359 363 368 372 378 382 384 387 390 393 398 400 407 412 416 423 427 432 439 442 450 451 457 449 442 438 433 428 425 417 408 401 400 401 411 427 440 447 451 470 482 494 453 447 435 392 387 386 383 377 372 368 369 365 367 369 366 363 361 356 352 349 345 337 342 352 358 367 376 378 384 382 385 390 397 399 404 406 408 410 416 413 417 431 442 438 439 442 441 442 452 447 445 434 442 457 470 479 477 487 490 501 509 498 485 471 461 452 445 447 451 457 459 461 471 473 464 460 459 456 454 462 472 472 463 451 439 430 423 417 417 411
 367 359 354 351 343 349 369 377 382 395 401 383 380 378 381 376 379 378 378 384 379 381 388 395 405 415 421 429 440 450 442 442 436 423 413 404 397 391 385 380 371 365 363 366 367 368 371 366 368 372 373 376 377 378 386 399 413 418 422 417 416 405 407 392 380 368 358 350 343 336 328 319 317 317 317 320 328 331 334 335 337 339 341 339 334 329 334 341 345 347 351 354 356 356 358 360 363 368 366 368 369 370 374 374 378 382 386 395 396 398 401 412 416 422 422 428 436 434 424 418 413 409 404 394 387 381 374 366 363 362 367 373 377 382 386 391 391 395 399 402 407 410 417 422 425 432 436 443 447 457 455 457 447 441 433 428 423 417 413 409 408 408 406 409 414 422 431 438 443 440 430 420 418 413 396 391 387 384 384 376 374 374 373 372 373 370 368 363 360 355 350 346 337 344 358 361 366 371 377 387 385 384 388 391 395 400 405 413 413 421 418 418 424 432 426 427 433 438 448 450 450 449 443 436 444 452 459 469 480 489 500 503 491 480 471 459 452 450 452 454 469 471 470 482 479 472 466 468 464 461 461 468 465 455 446 438 432 426 424 423 423
 369 361 353 350 344 343 352 367 382 398 403 397 387 387 387 383 385 381 383 388 384 384 387 392 400 412 409 412 420 424 425 428 430 431 418 410 406 399 385 379 371 366 370 375 374 375 375 373 373 379 381 384 384 387 389 391 395 396 401 403 404 408 415 406 397 375 360 349 341 334 325 318 317 317 318 326 334 338 340 341 341 342 343 342 335 333 333 338 344 349 350 357 363 364 363 363 365 369 372 371 374 373 377 378 381 385 388 395 401 402 406 413 421 424 427 432 440 447 435 427 423 418 409 400 392 385 379 371 367 367 372 376 383 387 391 396 401 401 406 408 411 416 423 428 433 436 440 448 452 459 459 459 449 443 438 433 427 420 419 417 413 414 414 416 416 420 425 431 432 426 417 411 406 401 397 393 391 390 386 384 384 383 379 377 377 376 369 366 363 358 354 350 341 344 357 364 370 374 379 387 393 394 395 396 400 403 407 413 421 425 422 424 426 430 430 432 434 438 447 454 459 457 455 446 444 451 462 476 488 498 509 504 490 479 469 460 458 459 459 460 469 481 480 489 487 478 473 475 473 468 465 469 468 461 452 446 437 432 434 434 435
 366 358 351 346 345 345 344 352 372 384 395 407 402 398 397 393 390 386 389 395 390 387 395 396 401 409 408 403 401 401 404 405 406 415 419 410 398 392 382 375 368 373 380 384 382 382 380 378 381 382 387 391 392 387 385 383 384 386 390 393 391 393 391 388 383 377 360 350 342 334 324 317 317 318 327 337 343 346 353 350 347 345 347 345 338 336 334 337 340 343 346 350 355 359 363 365 368 370 377 379 377 377 378 383 384 388 392 396 405 405 408 411 417 427 430 434 442 453 447 437 433 423 414 405 399 390 381 374 372 374 377 381 387 394 397 399 407 410 412 417 420 421 426 432 438 443 446 453 457 463 464 460 452 445 440 434 430 427 426 423 419 422 421 423 424 425 430 434 430 426 422 418 412 408 403 401 397 395 393 404 396 391 385 383 381 377 374 371 366 362 359 354 347 345 356 367 372 377 382 389 395 401 404 402 406 407 413 416 421 427 427 431 432 437 438 441 443 444 450 455 463 468 464 456 449 453 461 473 483 493 507 507 495 482 471 465 467 470 467 467 473 487 491 499 492 486 480 485 481 475 471 474 474 464 459 452 444 441 443 441 435
 364 355 349 347 349 348 346 346 363 386 398 412 417 421 416 406 397 394 396 398 392 391 395 402 408 412 408 404 398 396 393 391 390 391 392 394 394 395 384 371 377 387 395 397 395 389 387 384 394 396 392 394 390 386 381 377 374 379 379 382 382 381 390 381 371 366 359 352 343 335 322 317 317 320 336 351 358 361 370 367 355 350 350 350 343 340 338 339 342 345 347 349 351 357 366 373 375 373 377 383 384 381 384 393 387 391 397 400 404 410 411 412 418 430 435 437 443 451 460 449 438 427 418 410 402 392 384 379 376 379 384 387 392 400 404 404 408 418 421 423 430 429 431 437 443 449 453 456 463 465 467 458 454 451 446 442 438 434 433 429 426 431 429 430 434 436 439 442 438 436 433 427 423 418 411 411 406 402 404 421 406 396 391 387 385 381 377 371 371 366 362 358 354 348 357 368 374 383 387 391 398 404 413 411 414 419 423 424 427 432 435 440 442 444 449 450 452 454 458 460 462 470 471 465 457 458 463 469 478 491 503 510 498 483 472 467 472 477 478 475 477 489 502 510 503 491 489 495 490 480 477 481 481 473 464 456 453 449 452 447 441
 361 351 350 351 350 348 346 345 354 373 390 399 404 416 426 419 409 400 403 401 395 399 403 403 409 410 405 401 397 394 392 389 387 384 382 381 377 375 375 391 404 417 424 421 412 398 392 400 411 414 413 406 398 390 384 376 371 370 370 375 377 373 377 385 387 377 360 349 340 334 320 317 317 318 333 345 354 355 365 371 362 357 357 351 346 347 347 346 346 348 352 353 353 360 370 378 382 380 378 381 384 385 386 395 393 393 399 404 409 412 418 416 421 434 439 441 447 454 467 455 444 434 423 414 402 393 390 383 381 382 389 394 397 402 410 410 414 420 427 431 435 437 439 443 449 456 460 462 465 471 468 465 461 459 455 450 445 443 438 437 432 437 439 439 442 447 451 453 448 448 446 441 437 426 423 424 417 415 422 408 401 399 396 391 387 384 378 375 376 369 369 363 357 351 357 369 376 384 394 399 403 411 412 420 424 425 428 434 435 443 447 449 450 454 457 459 460 462 466 468 468 472 477 472 464 463 471 477 481 488 498 507 496 482 475 475 482 484 488 485 484 492 506 517 505 500 499 501 495 486 486 488 490 480 469 463 461 457 457 450 448
 354 354 354 353 351 349 346 345 348 364 374 384 393 407 423 431 425 407 407 404 400 402 410 414 415 409 405 402 400 397 397 393 392 388 388 385 380 387 398 412 417 429 437 436 432 419 415 411 426 432 432 419 406 391 382 379 372 366 365 367 371 369 368 370 375 374 371 359 340 329 318 317 321 325 331 337 342 347 353 357 361 364 365 352 351 353 356 353 353 353 355 358 358 357 365 375 380 384 384 383 385 388 389 393 400 395 401 407 413 418 422 422 426 437 444 445 452 461 475 463 450 438 428 417 407 402 397 388 385 385 391 398 405 410 413 417 419 425 430 436 440 446 451 452 456 463 470 470 473 478 474 476 473 469 462 459 455 448 446 443 440 442 446 447 452 455 462 463 460 463 463 464 460 443 436 435 426 419 412 409 406 405 402 395 392 386 381 382 375 374 374 369 359 353 363 373 381 388 398 406 408 415 417 421 431 436 436 438 442 447 454 457 458 462 466 467 470 471 475 475 475 480 482 481 474 469 475 486 492 497 505 505 494 484 482 484 494 493 497 496 493 496 504 518 515 509 507 510 499 494 496 496 495 485 475 473 470 466 464 456 454
 352 357 358 353 353 347 349 348 349 357 373 380 393 407 423 433 428 420 416 411 408 406 417 420 415 412 410 408 404 400 400 397 395 392 388 386 383 382 392 406 416 426 432 438 437 434 435 428 434 441 437 429 421 397 383 374 371 366 362 358 359 360 359 357 360 355 354 348 331 321 317 317 325 333 337 339 344 348 351 353 361 366 365 358 354 360 363 364 365 362 361 363 362 359 360 366 376 385 390 387 388 389 393 395 403 400 401 406 411 418 423 427 431 439 450 451 457 468 483 470 454 441 430 419 412 407 401 393 390 392 395 402 408 415 421 426 425 430 435 440 445 450 457 463 467 471 479 480 482 485 484 488 482 477 472 468 460 457 454 449 447 449 453 456 461 464 472 476 477 482 513 579 603 493 452 444 434 426 417 416 413 412 407 400 395 391 388 383 379 382 378 371 363 354 365 377 384 392 398 409 418 420 422 424 430 441 447 448 450 452 458 464 467 471 475 477 477 480 482 482 484 488 489 490 482 476 480 488 499 509 517 510 498 489 489 495 504 501 507 505 506 508 511 523 525 520 518 514 504 501 510 506 502 491 486 483 479 473 466 461 457
 352 356 359 358 360 349 351 351 350 356 369 382 392 403 414 423 435 438 436 420 416 412 415 420 419 417 414 410 408 406 403 399 394 390 393 391 387 387 390 393 401 411 420 425 428 431 429 425 425 430 430 427 420 401 391 384 379 372 366 358 352 351 354 351 350 346 342 333 320 320 320 319 323 336 339 344 348 351 356 357 359 362 367 360 360 359 363 367 369 370 366 369 369 366 365 367 379 385 393 395 393 394 394 399 404 402 404 407 413 418 425 430 437 442 453 455 462 470 477 468 454 440 430 424 419 410 404 399 394 396 401 409 418 421 426 431 433 439 440 447 453 457 463 469 476 483 486 492 493 497 495 500 493 489 482 473 467 465 459 456 455 457 459 464 469 475 482 491 498 514 590 653 601 496 469 452 440 430 422 424 418 416 408 405 401 397 390 387 385 386 383 374 364 358 370 381 387 393 402 407 413 424 431 433 433 439 444 452 459 460 464 469 474 479 484 486 487 487 489 491 492 495 496 497 491 483 487 496 502 513 524 514 501 495 495 503 513 510 516 515 517 521 522 531 537 529 528 516 510 511 518 516 510 502 497 494 487 478 473 468 460
 356 358 359 364 359 351 353 355 353 350 364 376 387 395 405 417 426 433 444 443 434 423 425 427 424 422 418 420 415 410 404 401 397 396 395 393 391 393 401 401 397 394 395 396 401 422 418 420 417 417 419 418 412 404 401 396 391 381 375 370 354 348 350 348 344 340 333 326 321 321 322 323 331 338 344 346 352 358 363 362 367 368 369 366 363 364 366 368 370 374 375 380 377 378 374 370 377 385 389 396 399 399 397 403 404 405 406 409 413 417 423 431 445 447 446 454 469 474 472 462 452 441 434 432 422 411 409 403 402 401 404 414 422 426 431 439 441 444 447 455 461 462 470 477 480 489 496 503 506 511 510 509 506 499 490 481 477 472 469 464 463 465 466 472 478 485 495 505 524 618 666 661 655 610 519 466 447 436 429 427 424 416 414 410 402 397 394 393 393 389 381 374 365 365 372 381 388 393 400 406 415 420 429 439 441 445 448 454 461 468 472 475 482 484 492 496 497 495 498 499 501 502 504 504 498 490 494 505 511 517 526 517 507 503 504 513 521 520 526 526 531 535 532 545 545 542 531 522 521 520 526 525 521 513 508 499 493 484 481 472 463
 360 361 365 367 356 351 353 356 355 351 360 372 382 391 400 407 417 430 438 448 447 445 439 436 432 427 427 426 418 413 408 403 399 397 400 400 396 395 408 415 407 394 386 383 382 387 393 408 403 405 409 409 404 399 394 392 387 383 372 367 361 357 347 342 340 336 331 324 321 321 323 330 337 343 348 352 355 360 367 370 374 378 374 369 371 369 372 370 375 378 384 388 384 383 376 373 379 381 385 392 396 402 402 402 407 408 410 412 416 419 426 435 447 457 451 454 460 465 474 464 454 443 444 435 424 418 416 412 408 404 406 415 423 429 436 444 448 452 456 458 466 468 476 484 490 495 504 513 520 528 526 523 520 514 502 492 489 487 479 476 474 474 478 482 487 496 506 520 566 675 674 670 666 663 617 498 452 441 435 433 429 424 419 410 403 401 399 398 393 387 381 376 367 367 376 380 388 396 401 408 413 422 435 442 448 451 457 464 468 472 477 482 487 492 496 505 505 505 507 507 510 512 512 512 507 498 500 509 522 526 530 521 514 512 510 518 530 530 535 541 541 549 544 557 558 547 537 530 531 529 538 531 533 524 513 506 497 491 485 476 469
 368 370 368 361 355 352 355 355 353 351 357 368 380 390 397 410 423 435 445 458 464 460 455 450 443 436 430 423 419 416 410 405 402 402 407 407 404 401 400 402 404 395 387 381 378 376 376 381 386 389 389 392 393 391 388 384 381 378 375 369 361 357 350 343 340 329 324 323 322 322 323 336 343 350 356 361 365 369 380 383 385 393 384 375 376 377 378 376 380 380 382 389 390 385 380 375 376 377 380 385 388 396 400 400 405 412 414 415 419 424 429 436 446 450 455 458 459 462 466 461 454 448 442 435 426 425 422 420 413 411 410 416 422 429 437 445 451 457 463 469 472 477 480 488 498 505 514 523 532 541 544 540 539 526 513 504 507 500 492 491 487 487 491 496 499 511 522 541 596 681 682 678 673 620 535 478 455 446 443 440 432 424 418 411 407 407 406 401 395 395 384 376 371 372 376 380 386 395 400 405 413 425 433 439 444 450 456 459 464 470 474 477 483 494 502 508 514 517 517 517 521 522 520 521 516 507 506 515 527 537 539 529 523 523 518 524 536 543 547 552 553 559 557 567 565 555 546 538 541 540 548 543 540 529 519 511 507 499 490 483 475
 381 378 369 355 351 351 352 355 352 351 357 369 378 387 399 410 423 434 446 459 470 469 465 460 453 442 436 431 426 423 416 410 406 405 411 410 408 402 397 393 391 386 384 380 377 377 371 370 367 369 369 369 373 382 380 381 379 373 372 367 358 349 345 336 328 324 323 326 327 323 327 339 347 353 364 374 378 377 388 394 395 400 398 384 384 387 379 381 385 383 385 388 391 385 381 378 380 378 381 383 387 393 400 405 409 410 419 418 421 426 432 437 443 449 455 463 468 467 471 463 454 448 442 436 436 433 431 427 421 418 415 420 426 433 437 442 449 458 466 473 480 485 490 498 507 515 524 535 545 553 561 574 579 565 537 527 528 523 519 510 509 512 513 515 523 565 594 653 672 686 677 639 601 511 485 467 457 452 445 438 431 422 417 416 415 412 406 399 399 392 387 377 375 380 380 380 383 390 396 404 414 419 423 431 437 443 443 449 453 461 467 472 482 490 499 511 519 525 528 528 530 530 529 529 526 518 514 516 529 542 545 535 533 531 527 534 539 553 560 561 566 561 558 556 563 561 551 551 551 551 554 551 545 534 526 522 513 503 496 490 484
 377 374 368 356 353 352 352 354 354 352 355 368 376 387 401 411 421 429 438 450 465 474 475 467 463 457 452 449 444 438 426 416 410 409 408 405 404 405 401 395 392 390 386 380 376 373 370 366 364 362 361 360 358 361 361 364 368 365 363 357 348 340 336 332 324 325 324 326 329 325 326 339 347 355 367 376 383 383 383 388 398 400 405 402 401 398 400 398 395 394 396 396 395 391 387 381 384 381 384 386 388 392 397 405 417 416 422 425 426 428 433 439 448 452 459 465 475 475 476 467 460 454 450 445 443 440 441 433 428 423 420 423 429 437 446 453 455 457 465 475 483 492 498 507 517 528 538 549 559 566 578 595 654 702 644 595 582 640 584 554 556 555 564 576 602 695 701 698 697 689 612 529 505 487 474 466 460 455 447 441 432 427 425 419 413 408 405 404 396 392 388 377 379 385 389 389 385 389 395 400 408 409 414 426 435 439 440 442 447 456 464 474 480 490 500 506 515 523 532 539 540 538 537 538 536 526 523 524 529 539 549 546 544 539 537 545 548 557 553 552 555 552 545 541 551 561 559 565 561 552 543 538 535 533 527 518 511 505 499 493 485
